-837.81896973 191.67999268 146.69200134
-819.84802246 154.40699768 161.22599792
-855.04302979 241.71299744 109.14299774
-806.60900879 124.42500305 187.89300537
-869.13800049 276.72198486 102.64700317
-807.33099365 136.07299805 165.91000366
-847.95800781 233.00900269 131.69700623
-896.71398926 350.64001465 97.12100220
-819.45501709 172.37899780 171.64999390
-834.11499023 208.76499939 156.99600220
-854.94702148 261.33499146 115.79799652
-806.61999512 153.19000244 176.62899780
-820.65399170 189.95300293 158.77999878
-823.27099609 200.48100281 133.82400513
-869.93798828 306.95800781 98.49900055
-879.86602783 329.51300049 97.12599945
-832.05102539 221.38299561 141.25300598
-845.45697021 252.98699951 131.82400513
-850.03399658 271.64498901 99.07199860
-835.72900391 239.28500366 114.48899841
-894.62298584 370.53698730 97.16500092
-857.02600098 291.89801025 95.07900238
-797.20599365 154.34899902 158.66099548
-822.39599609 220.38900757 120.66500092
-835.55902100 257.64401245 104.54499817
-801.53802490 175.38600159 159.23800659
-876.66302490 349.93899536 97.13400269
-804.07098389 190.20300293 141.70100403
-813.52697754 208.04499817 153.29600525
-894.14697266 390.49600220 99.38500214
-824.55603027 239.27799988 131.26899719
-860.13000488 325.09899902 98.12200165
-786.14001465 165.97399902 146.48899841
-781.17797852 150.73399353 170.19900513
-811.47698975 223.54499817 139.36199951
-839.76202393 290.48300171 105.33999634
-801.17102051 206.66299438 130.12399292
-846.19396973 308.70300293 98.50700378
-875.21899414 369.48999023 103.39499664
-897.33099365 416.70498657 102.56600189
-816.48400879 244.62300110 108.77400208
-785.02697754 170.30599976 173.66099548
-827.24298096 275.98800659 99.20600128
-856.94702148 345.74099731 98.11299896
-802.26098633 228.26100159 116.25900269
-788.71197510 192.89500427 154.44799805
-874.00402832 389.80899048 101.51399994
-784.16400146 195.36000061 125.86100006
-804.31298828 242.32299805 132.19999695
-811.57897949 263.64099121 102.19999695
-893.17797852 436.01199341 106.07499695
-840.28002930 328.34799194 98.17900085
-774.16101074 179.24400330 158.87300110
-825.11999512 299.82400513 95.04199982
-877.67999268 409.73098755 102.94899750
-763.70898438 159.83999634 162.35200500
-791.29199219 223.96200562 133.63099670
-855.26501465 366.37600708 99.12799835
-782.90399170 213.36199951 112.19899750
-763.92498779 172.50799561 131.69599915
-780.47497559 208.65299988 141.10899353
-798.48602295 252.22500610 113.26499939
-809.73901367 286.06698608 98.40100098
-785.24200439 232.81599426 106.22100067
-768.52099609 191.00199890 139.61599731
-895.39001465 462.66799927 132.92399597
-837.01800537 348.93399048 98.12999725
-822.02899170 320.08200073 99.08100128
-853.66601563 386.24398804 102.58200073
-874.17700195 429.48300171 106.97399902
-882.71002197 448.32598877 118.17500305
-756.02801514 175.05000305 150.46400452
-784.07702637 242.02600098 125.62100220
-764.59002686 205.32200623 113.33799744
-796.23498535 272.40600586 117.62599945
-857.48199463 406.01098633 105.62500000
-769.15802002 221.97000122 126.58599854
-806.38000488 307.35998535 95.87400055
-784.89697266 262.88598633 102.78800201
-835.25701904 369.46701050 100.42099762
-890.43499756 480.92498779 125.52400208
-893.29199219 486.16699219 146.74699402
-759.91101074 208.19000244 146.98899841
-817.99102783 339.74200439 99.08799744
-751.60797119 197.49400330 127.95500183
-789.83398438 283.23901367 100.60600281
-742.94000244 173.17199707 165.90800476
-771.33502197 246.76499939 110.37300110
-749.03302002 192.88400269 156.92599487
-875.15002441 463.44500732 129.69599915
-778.39599609 262.45498657 121.73000336
-853.77899170 425.72799683 109.34999847
-862.90502930 444.97799683 113.23300171
-834.65899658 389.57000732 108.25000000
-892.04998779 503.26199341 157.99400330
-802.35699463 326.89300537 99.08999634
-736.59997559 179.64300537 147.47799683
-816.85498047 360.00399780 101.03099823
-764.80102539 245.16600037 130.86799622
-757.76800537 228.30900574 141.88099670
-875.31097412 481.79501343 138.74200439
-837.73400879 409.34399414 106.09100342
-785.99200439 305.48901367 95.34899902
-774.94097900 282.85101318 114.60500336
-893.61102295 523.30798340 171.18800354
-742.74298096 214.41700745 155.58000183
-730.36499023 188.87899780 165.08799744
-800.88702393 348.07000732 105.42099762
-815.96301270 379.16299438 108.05799866
-856.94097900 462.58898926 120.97299957
-879.31298828 505.37100220 142.56100464
-886.59197998 521.63702393 152.10400391
-857.52099609 466.19400024 141.34100342
-871.22601318 492.70700073 156.08200073
-759.27001953 265.14700317 133.31399536
-834.83801270 426.51599121 116.19799805
-751.79199219 248.11199951 145.84399414
-842.35101318 445.35101318 116.68800354
-727.39202881 200.02999878 148.44500732
-767.75402832 295.45098877 100.76000214
-781.58502197 324.67098999 99.12599945
-892.04400635 539.64898682 182.93400574
-816.68597412 399.99398804 106.27500153
-712.97302246 175.51400757 154.19700623
-735.63098145 227.05999756 140.57699585
-798.21801758 368.29400635 102.68199921
-872.44598389 511.74301147 163.31500244
-755.08398438 278.40899658 117.49400330
-856.46002197 487.03399658 132.74000549
-724.21099854 211.41499329 165.03500366
-739.89697266 250.76400757 129.84199524
-881.80798340 539.75000000 165.26699829
-780.96801758 345.08300781 100.51399994
-899.62597656 573.82897949 198.87899780
-851.86102295 483.83801270 152.00700378
-873.37902832 526.57098389 178.34599304
-815.81799316 419.50399780 112.08699799
-710.61798096 192.24200439 168.69099426
-763.46600342 315.46301270 98.73400116
-836.95001221 463.76098633 123.40799713
-859.39801025 506.68798828 146.59700012
-797.77697754 388.49301147 106.53600311
-707.96301270 194.99099731 148.69299316
-673.00701904 117.68900299 173.59500122
-731.27197266 245.88099670 147.47300720
-747.27001953 287.92401123 101.06199646
-822.72302246 441.89999390 120.72100067
-882.95001221 557.95898438 182.84399414
-721.13702393 229.92999268 154.14100647
-738.16198730 270.48098755 126.71099854
-780.72302246 361.77301025 111.61100006
-838.56597900 477.74798584 137.78799438
-862.70697021 529.65698242 159.05299377
-762.66900635 335.76800537 100.51499939
-798.51702881 408.65301514 108.72799683
-847.73901367 500.79699707 162.30999756
-707.91302490 217.88200378 141.84100342
-714.93402100 237.18600464 132.51699829
-841.71502686 498.61999512 141.19900513
-880.43798828 567.92401123 200.26100159
-891.58001709 589.53198242 208.54800415
-766.79199219 348.52999878 117.44100189
-745.14801025 307.73699951 96.03500366
-704.12701416 210.25500488 162.77600098
-866.16998291 544.21899414 184.91799927
-818.69799805 458.81399536 131.86599731
-778.66601563 381.36300659 107.60900116
-719.99298096 257.20800781 133.92900085
-804.61700439 436.34298706 114.09799957
-733.55603027 289.26000977 118.17099762
-852.65802002 527.10900879 176.64999390
-747.92401123 325.84600830 109.94100189
-845.35601807 519.67602539 156.06199646
-890.21899414 607.30700684 199.43200684
-822.28802490 479.62100220 149.35800171
-720.02899170 274.12600708 118.25900269
-779.47601318 401.66400146 111.37300110
-701.30401611 235.30299377 149.53799438
-754.40399170 354.02999878 102.03500366
-863.75500488 564.21697998 188.07099915
-727.06597900 300.67001343 102.88099670
-815.49401855 478.62600708 129.86799622
-873.51702881 586.80999756 194.19999695
-787.81402588 426.10000610 110.35600281
-760.48297119 372.32699585 107.70899963
-850.55297852 547.50097656 167.75900269
-801.05401611 454.51000977 121.84899902
-746.43798828 344.60400391 119.80599976
-688.28399658 219.19700623 153.95899963
-695.12902832 239.74800110 130.95500183
-827.19201660 509.31399536 150.02299500
-878.51098633 603.43798828 215.17999268
-702.13201904 256.95599365 123.51000214
-729.94799805 321.43600464 98.56400299
-833.56701660 521.88702393 172.56700134
-860.37200928 574.59301758 205.03500366
-842.85601807 545.22399902 186.63099670
-761.42999268 392.29501343 108.91899872
-712.85797119 292.94799805 115.85299683
-679.73297119 226.24299622 132.54600525
-782.87701416 443.72799683 118.56199646
-811.12500000 496.29098511 149.72099304
-801.60400391 478.38299561 144.36300659
-699.12200928 275.30300903 113.94799805
-723.61798096 325.26800537 117.31099701
-768.32202148 418.48800659 112.59500122
-730.28601074 341.85000610 107.81999969
-844.46697998 563.42498779 195.96000671
-860.43597412 593.50201416 211.94999695
-741.02697754 367.02301025 109.32399750
-823.92602539 531.66601563 157.72599792
-710.75201416 310.43600464 96.51200104
-789.61499023 469.58700562 128.48300171
-799.26501465 482.94299316 163.77299500
-867.98199463 617.49597168 204.58999634
-829.28100586 547.08801270 171.09199524
-686.21899414 259.45901489 135.60099792
-595.04400635 65.64700317 177.10699463
-677.21697998 242.75100708 144.58399963
-811.70501709 518.00799561 167.91900635
-741.76098633 387.88500977 110.05599976
-846.30401611 587.37701416 198.41299438
-807.62799072 517.66400146 147.16999817
-675.01300049 249.47999573 119.67099762
-694.56097412 293.97399902 107.69999695
-794.95697021 496.25900269 137.60099792
-750.36199951 409.53601074 110.01200104
-763.45599365 437.52099609 118.51300049
-784.16699219 473.69900513 153.89399719
-772.69201660 457.48999023 129.59199524
-824.60601807 553.41601563 190.20100403
-831.89099121 570.54302979 179.03100586
-855.19201660 611.08197021 220.22099304
-707.60198975 328.79901123 105.13700104
-679.79797363 269.67800903 115.05599976
-714.69500732 342.76199341 121.32399750
-850.08398438 607.55297852 200.34100342
-722.03100586 360.70300293 111.54399872
-660.49902344 230.80799866 138.69900513
-795.12902832 504.72100830 159.36000061
-813.43200684 539.11199951 180.51699829
-826.13598633 570.71197510 200.71099854
-690.01599121 312.08898926 98.11299896
-804.31799316 535.90899658 162.03399658
-775.28100586 481.59298706 135.67900085
-745.79797363 427.38699341 118.86399841
-722.84399414 381.00601196 114.25199890
-661.23797607 250.44999695 134.56199646
-835.74102783 598.29400635 211.54299927
-778.37902832 493.30200195 154.77299500
-674.85101318 289.22299194 111.22299957
-660.40197754 261.22198486 112.36799622
-729.68499756 404.22698975 111.05400085
-787.55200195 517.81500244 146.12399292
-753.24102783 453.35000610 125.92700195
-809.45800781 560.25500488 177.20100403
-702.43200684 352.79998779 108.97799683
-844.08197021 629.06701660 207.74699402
-692.28302002 336.18600464 116.27200317
-824.26599121 594.24401855 191.31199646
-757.66699219 471.97500610 132.07000732
-706.03997803 370.34100342 119.71900177
-782.75299072 519.85400391 165.83200073
-806.38598633 566.21600342 196.13099670
-670.74798584 307.24200439 103.55599976
-815.65600586 586.45300293 208.18499756
-829.39099121 616.09600830 201.02200317
-758.46899414 482.56399536 149.80799866
-793.13397217 551.12500000 168.75599670
-679.02398682 328.77801514 102.93800354
-656.77899170 281.03799438 113.89499664
-725.02301025 423.06500244 116.51300049
-735.32897949 443.66000366 124.66799927
-710.77099609 397.65600586 113.80400085
-767.21801758 504.05499268 167.41799927
-641.61798096 257.59899902 119.08200073
-782.20300293 540.36700439 155.56799316
-780.35601807 536.89300537 176.10800171
-682.04998779 351.03799438 106.36599731
-737.80401611 463.24600220 133.95500183
-789.32098389 563.37597656 185.54400635
-799.67602539 584.00701904 189.47000122
-811.43798828 605.66699219 203.65199280
-652.22698975 299.19100952 105.93399811
-711.08599854 416.07000732 129.72599792
-765.02697754 522.23999023 156.78300476
-823.77502441 633.96801758 208.25399780
-696.33001709 387.74700928 124.00700378
-686.26501465 368.48199463 116.21800232
-752.69897461 502.01300049 150.17999268
-637.67102051 275.56500244 109.48699951
-740.57098389 482.80300903 140.36900330
-658.73297119 323.51501465 101.51999664
-714.32897949 437.34698486 125.81900024
-794.97802734 588.45300293 208.53900146
-742.52502441 489.56900024 162.21200562
-721.61499023 452.70001221 141.92399597
-761.31402588 528.37500000 175.72700500
-775.61602783 560.00500488 164.14300537
-664.14398193 341.76800537 107.88800049
-694.64099121 408.02899170 120.27500153
-707.01202393 428.69299316 146.66200256
-747.33197021 507.07998657 172.64199829
-768.11999512 551.79101563 181.73599243
-805.56201172 623.94201660 209.58900452
-620.51599121 263.93899536 109.82800293
-694.49499512 410.94400024 140.17100525
-780.72399902 578.39300537 197.23300171
-795.99798584 606.73199463 216.64300537
-760.08801270 546.01800537 161.22900391
-777.10198975 578.27502441 176.85899353
-726.67401123 479.22698975 154.30299377
-667.09399414 364.71301270 109.94300079
-632.26800537 295.01300049 108.99299622
-676.11199951 382.18099976 126.85600281
-639.21301270 314.23800659 101.70899963
-807.81701660 645.45098877 212.02000427
-695.66699219 430.22399902 127.32700348
-783.88000488 602.45098877 195.91400146
-713.13702393 464.52600098 155.88200378
-645.77801514 335.34698486 114.08499908
-702.05902100 446.96301270 139.12300110
-677.75598145 400.83099365 134.69000244
-732.25299072 509.13400269 157.93499756
-797.33001709 631.16302490 226.36900330
-741.16198730 526.08898926 169.80000305
-749.33502197 543.49401855 181.55799866
-615.11199951 283.26098633 105.91799927
-722.33001709 493.43798828 167.99000549
-760.51898193 568.13397217 191.17300415
-649.11199951 355.63500977 112.21600342
-756.70599365 567.95300293 167.26800537
-785.32897949 622.80200195 207.90400696
-656.73797607 379.33898926 120.44799805
-677.64697266 420.74099731 130.55700684
-766.96197510 595.93402100 182.95199585
-734.34802246 530.78698730 188.06900024
-773.45898438 607.32397461 212.39799500
-712.21301270 492.57800293 150.66999817
-619.24700928 309.41598511 102.45200348
-706.73901367 480.61199951 166.18299866
-724.52197266 515.66998291 175.75700378
-626.49700928 328.31799316 108.73400116
-661.61602783 398.73999023 121.21199799
-695.86199951 465.18899536 145.67199707
-759.05200195 586.25598145 199.63299561
-792.14501953 650.42401123 224.42399597
-666.02801514 405.64498901 150.69700623
-681.65197754 440.37799072 137.49499512
-777.74401855 626.89898682 226.55099487
-742.13098145 559.87701416 190.79800415
-630.18701172 348.12701416 111.52200317
-684.09899902 451.84201050 155.68200684
-751.07598877 587.35198975 174.00399780
-640.58697510 367.81399536 126.95999908
-764.02197266 616.38397217 197.14500427
-707.36999512 503.14700317 177.75999451
-689.98199463 469.59201050 164.38999939
-601.82897949 298.28500366 102.97000122
-664.94897461 426.30599976 148.43200684
-727.09301758 545.92102051 200.14300537
-774.81799316 642.50000000 214.13000488
-717.86798096 534.73400879 173.68099976
-741.10900879 580.15301514 193.22599792
-641.78100586 387.41699219 133.34399414
-652.01000977 409.22000122 136.11500549
-607.22302246 323.17498779 111.64399719
-759.94299316 621.52697754 217.04200745
-749.97802734 603.39697266 205.08599854
-712.11798096 529.77502441 192.34899902
-771.39001465 645.59698486 233.69500732
-688.60198975 488.01199341 172.59399414
-654.47302246 428.34298706 128.47000122
-664.74798584 446.45498657 146.57699585
-775.33099365 664.39300537 214.60099792
-727.34399414 567.24700928 202.35200500
-623.28399658 366.80398560 116.41100311
-584.57598877 288.26098633 106.48899841
-610.24499512 344.12701416 112.48100281
-638.90100098 404.30801392 121.15100098
-699.07897949 520.45697021 171.85299683
-742.52801514 609.00701904 182.60699463
-676.68402100 478.34201050 151.89100647
-666.16900635 456.85598755 164.32200623
-756.75701904 638.44598389 206.50399780
-635.43798828 399.60299683 147.95700073
-711.07000732 551.22399902 184.57099915
-590.00897217 312.38400269 112.59100342
-625.41699219 386.74899292 121.40499878
-687.92199707 505.98098755 183.13600159
-641.55902100 419.19198608 150.13499451
-730.45898438 595.43200684 201.47399902
-744.41497803 625.89099121 194.10400391
-668.93597412 475.89300537 171.27900696
-693.29602051 522.98602295 192.22700500
-707.24700928 549.89697266 204.59700012
-753.04699707 641.70501709 226.29200745
-761.69000244 663.27697754 229.48599243
-646.01898193 438.82998657 152.83200073
-648.66900635 448.88198853 133.82899475
-635.55200195 422.07400513 130.78999329
-591.55999756 335.73699951 113.23500061
-717.76898193 582.51300049 211.42900085
-602.90899658 362.65600586 116.61599731
-670.97302246 493.50900269 180.93099976
-731.11999512 614.93597412 205.96000671
-739.68103027 631.25000000 215.01899719
-571.78601074 301.49899292 114.45700073
-656.83398438 472.36599731 154.38099670
-693.40301514 543.10498047 191.17199707
-611.75500488 384.85299683 137.47300720
-705.70898438 570.99298096 196.91099548
-722.14501953 608.05102539 185.88200378
-746.18200684 660.62701416 215.45199585
-678.55902100 526.17700195 178.83299255
-604.83300781 382.77600098 118.75800323
-618.61401367 407.66500854 155.26699829
-699.64599609 567.66101074 215.68800354
-642.40197754 458.20700073 158.18699646
-557.61401367 286.57199097 139.16700745
-572.79199219 322.72601318 115.42800140
-648.82702637 471.94699097 173.27600098
-656.77600098 490.47900391 163.10899353
-669.10498047 511.66598511 189.19599915
-688.00000000 548.50201416 209.85600281
-625.88397217 431.09100342 154.76300049
-712.07202148 602.31298828 209.49400330
-722.61798096 627.51702881 192.73100281
-678.22399902 533.54498291 200.70599365
-584.43402100 354.87701416 116.86199951
-662.39898682 509.19900513 169.89199829
-732.70202637 647.04602051 225.73199463
-565.12597656 312.92800903 133.21200562
-607.93701172 404.64099121 136.50999451
-628.62402344 448.14099121 136.64500427
-727.21099854 643.46899414 203.96800232
-740.25201416 665.52301025 234.16600037
-636.88397217 469.11599731 139.47099304
-700.02801514 587.00402832 222.71499634
-649.58898926 492.11099243 181.73100281
-715.62402344 625.68402100 212.68400574
-741.79302979 679.76397705 219.47999573
-586.86401367 370.98800659 128.66700745
-570.82202148 340.79501343 124.17500305
-551.01501465 300.32699585 125.13800049
-704.94097900 615.04498291 193.44700623
-639.39697266 485.00000000 153.87399292
-622.26599121 451.07000732 158.05599976
-674.43499756 554.34698486 195.72599792
-573.68499756 356.33700562 136.52600098
-590.64599609 393.05499268 131.56599426
-608.38098145 424.63299561 163.75900269
-658.58398438 527.92102051 178.78999329
-678.78497314 562.93798828 220.85699463
-726.81597900 665.01501465 218.31199646
-547.07897949 302.51199341 145.37899780
-629.42297363 472.70901489 166.15199280
-658.82702637 528.70001221 199.86399841
-559.21398926 329.81100464 143.30999756
-647.58502197 510.70199585 190.46800232
-696.18402100 608.10498047 220.24899292
-712.88000488 642.92999268 223.19000244
-665.58001709 545.78302002 212.08799744
-641.09197998 505.04598999 168.98699951
-594.55102539 414.28799438 148.43899536
-679.78497314 583.12097168 211.95500183
-715.78601074 659.90997314 234.21200562
-607.87097168 443.82598877 169.90699768
-679.46801758 587.03497314 232.03700256
-697.58099365 631.21398926 204.15100098
-574.06701660 382.07101440 139.45300293
-558.23699951 349.44699097 148.71800232
-618.19500732 478.15798950 140.08599854
-722.38098145 684.76702881 219.90699768
-654.84698486 547.13000488 192.40299988
-625.70300293 492.10598755 171.94700623
-611.89001465 464.16900635 171.25000000
-551.91601563 344.93798828 129.50500488
-542.27398682 319.98699951 154.14999390
-532.67999268 298.73098755 159.31199646
-662.54602051 568.34899902 205.57699585
-684.39501953 614.89099121 204.79299927
-694.89501953 634.06896973 224.08399963
-563.25897217 368.56900024 152.12300110
-576.55102539 405.72100830 139.45599365
-589.97698975 428.38101196 171.15299988
-634.68798828 522.25402832 177.08700562
-639.04101563 527.96997070 196.23100281
-663.60797119 575.45898438 225.65199280
-619.47601318 495.67098999 151.51499939
-677.16198730 606.87597656 229.55400085
-644.50299072 542.14898682 209.55000305
-695.70202637 652.72100830 216.54100037
-705.42401123 672.80297852 219.91700745
-543.38702393 340.51699829 159.92100525
-608.21398926 483.66101074 166.34500122
-621.14398193 507.81900024 184.45500183
-577.70202637 421.62899780 156.66799927
-647.07397461 561.06201172 216.02499390
-662.61499023 593.97198486 216.97099304
-694.99798584 659.48199463 235.71099854
-593.87500000 455.86700439 177.96600342
-553.62097168 380.09500122 138.75599670
-545.58001709 360.44601440 159.87100220
-525.55603027 316.67001343 166.55299377
-675.59399414 627.10601807 228.35400391
-613.51800537 510.57598877 163.57099915
-634.21600342 549.09301758 193.75900269
-515.92401123 308.75299072 150.15600586
-580.20202637 440.39999390 184.54200745
-529.94000244 335.39300537 174.44599915
-556.62200928 401.03799438 140.23100281
-679.89398193 646.96801758 231.49200439
-619.83801270 527.56896973 189.88099670
-521.87298584 328.78601074 149.99499512
-593.61297607 476.36300659 178.80499268
-650.87597656 589.18402100 232.71200562
-565.72198486 425.42001343 173.53500366
-656.73101807 608.64599609 232.58700562
-529.37701416 353.69699097 149.58900452
-536.59802246 372.11499023 145.93200684
-557.86199951 415.98199463 153.99600220
-595.77001953 497.47601318 150.69099426
-633.14801025 567.49902344 203.14999390
-684.59802246 673.78997803 222.45899963
-582.98101807 463.38400269 193.48300171
-531.35699463 357.00201416 174.64599609
-508.18600464 309.42300415 177.01100159
-637.36199951 576.11798096 225.25599670
-596.40197754 499.62500000 171.89799500
-604.24102783 518.54699707 180.98800659
-541.05999756 391.95599365 150.85000610
-658.98901367 627.26898193 239.53399658
-574.32800293 459.50900269 175.06599426
-612.79302979 538.66998291 205.34599304
-674.82299805 664.91400146 239.02200317
-512.39202881 329.78298950 182.77400208
-612.33197021 545.34997559 184.26100159
-567.74798584 451.23098755 198.61099243
-637.45800781 599.55297852 221.49299622
-658.48999023 643.53002930 226.72700500
-577.37402344 482.17098999 168.16200256
-557.41601563 438.95800781 186.00300598
-591.57897949 516.89001465 159.22399902
-615.65600586 562.63598633 194.22200012
-523.58398438 374.11599731 167.04600525
-626.11297607 584.81799316 211.03199768
-546.07000732 422.88699341 169.39500427
-513.40399170 350.50601196 184.42199707
-574.17999268 481.64199829 189.41700745
-533.96997070 403.95300293 165.85499573
-596.87500000 533.18902588 192.91200256
-640.17797852 616.75402832 240.71000671
-663.44598389 669.79699707 222.90400696
-496.61199951 324.86401367 170.44500732
-528.82000732 397.10299683 184.91200256
-576.85101318 500.49499512 180.12600708
-655.93402100 658.00402832 240.78799438
-489.39999390 316.32299805 187.08599854
-583.82098389 519.25598145 179.19700623
-591.36499023 536.68103027 172.11099243
-496.82299805 334.46798706 195.09800720
-506.32998657 359.91598511 167.49899292
-640.25299072 633.96099854 229.99699402
-560.12097168 470.05899048 198.37899780
-597.82098389 553.08801270 197.17300415
-530.86602783 416.95199585 182.60899353
-547.22198486 448.29800415 201.43600464
-607.80297852 577.00799561 208.59599304
-517.03302002 392.55499268 162.80599976
-505.06900024 368.91799927 185.82699585
-536.18902588 434.22698975 191.23800659
-617.00402832 601.30700684 218.97200012
-623.84698486 617.37799072 229.11900330
-638.23602295 644.70397949 247.03199768
-492.73498535 348.97799683 178.05999756
-510.54098511 388.86599731 182.13099670
-562.46301270 496.79699707 196.27900696
-570.96002197 521.96502686 158.63000488
-651.06500244 677.61999512 238.83000183
-638.58801270 655.89697266 230.32699585
-576.92102051 536.54602051 188.06100464
-584.32702637 553.78302002 180.26300049
-625.33898926 629.39801025 245.45100403
-561.23901367 507.62399292 169.18899536
-491.93399048 357.26998901 196.92300415
-542.34100342 460.91900635 216.19299316
-478.88500977 334.24798584 179.19599915
-512.58001709 405.74200439 192.95199585
-521.33697510 422.92199707 200.63800049
-589.45001221 566.04498291 210.01499939
-543.59600830 477.35900879 187.50999451
-471.71398926 323.53500366 194.57299805
-599.98602295 595.76000977 209.10000610
-528.19299316 444.59399414 207.03999329
-560.58197021 520.06500244 184.99299622
-577.13201904 552.34399414 200.35499573
-634.19396973 664.70800781 247.91700745
-476.72198486 343.20401001 198.03300476
-492.63800049 381.08401489 195.77499390
-563.75598145 536.60900879 171.35800171
-544.76300049 491.30700684 203.80499268
-602.88500977 612.90600586 227.43200684
-632.48602295 675.60699463 228.21899414
-479.66198730 363.71798706 182.18499756
-586.76300049 583.95599365 218.78599548
-496.10598755 402.92300415 178.94400024
-581.90802002 580.98901367 198.81100464
-608.71099854 631.41900635 232.68600464
-617.81597900 650.82501221 232.13999939
-618.18298340 647.86999512 251.95899963
-503.95700073 422.23199463 185.31500244
-530.63598633 474.64898682 207.01300049
-539.70098877 497.96200562 185.24600220
-564.25598145 554.36700439 181.53599548
-557.16699219 538.38800049 192.74299622
-510.93499756 440.12399292 196.12699890
-520.63897705 459.25799561 218.40100098
-544.48901367 513.88897705 196.50399780
-476.39001465 369.98901367 201.97900391
-458.90301514 338.75500488 184.18200684
-490.00500488 401.63101196 199.47399902
-500.65899658 422.82501221 206.54200745
-569.39697266 568.77801514 208.83000183
-508.54000854 442.68899536 217.07499695
-584.69201660 606.46502686 216.36900330
-601.71899414 635.86102295 251.16000366
-614.89202881 669.18103027 242.57499695
-462.20498657 357.09799194 194.68200684
-539.62799072 526.64501953 175.87899780
-526.21801758 491.59298706 217.02799988
-474.33499146 387.44400024 190.34500122
-554.26098633 556.58898926 200.96499634
-445.87399292 332.55398560 198.04100037
-559.69799805 573.97497559 190.91900635
-587.77502441 625.93701172 229.07299805
-566.37097168 586.76702881 217.36900330
-484.78500366 421.10000610 191.05999756
-471.91900635 390.38800049 210.18699646
-527.11700439 510.09799194 205.72500610
-537.08502197 532.78601074 196.92100525
-596.78100586 650.77301025 238.00599670
-512.45397949 477.33898926 221.40299988
-491.05899048 439.46398926 199.03700256
-540.57702637 547.98901367 177.02000427
-608.83099365 682.04302979 228.20500183
-501.75000000 460.78100586 211.43099976
-478.02200317 415.02398682 211.10899353
-445.06698608 353.74798584 183.77900696
-457.06500244 374.83300781 205.48500061
-487.19900513 435.69299316 218.83900452
-511.16000366 489.01199341 203.81399536
-564.88098145 604.83502197 208.55799866
-520.68103027 520.15802002 186.36500549
-582.51702881 638.82397461 245.84899902
-548.25097656 577.86499023 207.69500732
-569.54797363 620.00701904 221.46200562
-602.45697021 684.73901367 247.11099243
-441.79501343 359.02499390 203.02499390
-533.54199219 552.47497559 199.83799744
-591.74102783 668.89099121 230.81199646
-495.86999512 468.87200928 229.20799255
-507.85699463 497.44100952 224.22900391
-457.35501099 400.05398560 200.00700378
-519.09301758 528.64398193 205.55299377
-470.68899536 431.62701416 201.78500366
-520.01898193 539.73999023 178.15299988
-482.72399902 455.10101318 216.35400391
-450.68798828 391.87100220 217.03199768
-427.08200073 345.49499512 201.33799744
-458.81100464 411.45401001 216.85899353
-575.34197998 652.75402832 233.36799622
-502.57299805 507.55599976 200.23899841
-439.44400024 378.96899414 195.40100098
-492.44900513 485.91299438 217.10699463
-545.32897949 597.83197021 211.91600037
-582.34600830 668.34197998 248.82600403
-529.90502930 572.32702637 195.43099976
-563.78002930 636.03802490 233.13400269
-426.71701050 361.90701294 184.99000549
-436.91299438 377.29598999 215.75300598
-467.92098999 441.54699707 219.49600220
-533.52899170 582.15002441 221.06399536
-549.67999268 616.29199219 219.49299622
-501.56298828 525.13098145 190.68699646
-513.87097168 548.04797363 205.38900757
-499.53298950 516.55102539 218.08900452
-475.98300171 467.02600098 231.44700623
-485.45498657 485.89199829 236.36799622
-515.51098633 558.58599854 186.02200317
-578.80297852 683.74298096 226.44099426
-451.22698975 424.71600342 203.62100220
-422.66000366 365.99301147 204.93099976
-519.42401123 569.06298828 212.33399963
-436.23400879 400.45199585 205.52400208
-486.90100098 503.24700928 226.14199829
-440.39599609 408.70800781 224.96200562
-558.41699219 651.58197021 245.22399902
-498.86499023 535.03802490 209.77999878
-482.76599121 502.13400269 206.37199402
-462.17599487 460.32299805 215.38000488
-563.91802979 668.84698486 236.63400269
-498.05099487 544.55401611 185.48300171
-521.88098145 590.43597412 205.57899475
-531.68902588 607.23199463 224.57400513
-543.48400879 630.31701660 232.66099548
-267.25799561 65.63999939 180.99499512
-450.67599487 444.97799683 208.77400208
-472.12298584 487.51800537 220.28700256
-406.31600952 358.83300781 194.06500244
-425.35598755 393.01800537 222.56900024
-509.69400024 575.46398926 195.57400513
-452.37200928 449.35598755 229.71800232
-418.40701294 386.62200928 200.98899841
-481.91500854 519.99200439 197.13299561
-331.37899780 215.82299805 154.07800293
-439.15701294 430.21398926 219.35699463
-465.68600464 481.36999512 241.02900696
-517.30297852 592.94000244 226.45500183
-496.55300903 555.05902100 212.63900757
-479.28399658 521.21301270 220.67700195
-557.27899170 683.84698486 224.65699768
-407.24099731 375.59500122 215.09500122
-526.58001709 619.84002686 239.88000488
-540.72198486 650.37799072 234.75599670
-424.13101196 415.30700684 211.60200500
-467.76098633 501.31600952 237.31399536
-503.52499390 580.36297607 219.22099304
-450.09799194 467.91101074 238.15100098
-490.92498779 561.95397949 193.14399719
-463.08099365 504.09500122 210.81700134
-478.26599121 539.67700195 191.03199768
-544.68200684 667.86499023 244.38900757
-479.51000977 541.63299561 212.76499939
-513.08697510 610.81701660 217.46000671
-452.71798706 486.67098999 226.20599365
-527.59802246 638.74200439 247.54200745
-435.74600220 453.65200806 219.44900513
-409.02801514 401.32901001 214.21499634
-394.37701416 375.73001099 196.43299866
-508.58898926 608.94396973 236.94099426
-424.74398804 437.99099731 231.16900635
-492.08499146 584.22698975 202.23800659
-460.83401489 522.98101807 200.23399353
-480.54098511 559.35601807 224.36799622
-517.55102539 635.36999512 230.57699585
-431.10000610 456.95999146 238.67100525
-458.83099365 517.01898193 227.52000427
-536.82098389 679.52099609 228.99099731
-445.25100708 486.31698608 244.93899536
-386.91799927 376.28900146 216.07000732
-492.16299438 593.14697266 230.24400330
-525.34399414 662.40802002 230.32200623
-473.25500488 560.03302002 202.68699646
-410.64401245 429.01501465 217.49299622
-507.85299683 629.53698730 247.16099548
-480.88500977 579.79602051 218.96299744
-391.29699707 394.54699707 223.26100159
-432.33599854 478.63000488 231.23800659
-445.88400269 505.57501221 238.02000427
-459.17599487 536.86199951 220.01800537
-441.79299927 501.78298950 218.31300354
-459.67898560 545.76300049 198.11199951
-492.25201416 609.71099854 218.79699707
-525.66998291 673.96398926 247.03799438
-384.95098877 392.07400513 203.73599243
-514.34002686 653.83697510 246.44200134
-499.26501465 626.61798096 228.34700012
-414.65200806 454.79800415 225.18800354
-394.85998535 415.49499512 215.36500549
-441.35000610 520.05499268 208.11799622
-460.57400513 557.14898682 223.76600647
-488.73001099 612.96600342 239.19500732
-404.32800293 441.92300415 236.58599854
-417.61700439 471.03500366 243.39100647
-424.87701416 488.74600220 249.52000427
-439.47698975 523.20800781 229.52499390
-472.44100952 591.33697510 233.52099609
-500.17401123 649.55297852 232.38299561
-513.72497559 679.56597900 227.13900757
-474.45800781 600.18798828 214.44400024
-367.53500366 377.85101318 210.95199585
-460.69500732 574.78997803 214.00399780
-389.36401367 425.59698486 232.33599854
-440.99200439 539.57299805 202.05700684
-423.36401367 498.85800171 227.90100098
-363.40899658 383.69601440 190.96699524
-487.22399902 631.33099365 248.74099731
-428.05398560 509.04901123 246.51600647
-371.67999268 397.02600098 217.87699890
-442.15399170 545.23999023 226.66099548
-446.56201172 558.01599121 208.75100708
-456.63299561 574.12500000 233.88099670
-504.24200439 671.19897461 247.19099426
-492.90200806 650.73602295 251.95899963
-375.08300781 416.12500000 211.09399414
-399.19400024 460.23800659 243.23899841
-472.50799561 617.48602295 224.87699890
-467.91699219 608.80102539 242.78799438
-387.23599243 444.52700806 225.54200745
-420.92401123 519.93902588 215.16000366
-361.38699341 402.53698730 199.09199524
-494.04699707 675.74700928 224.80400085
-454.76400757 595.46997070 219.76899719
-406.06600952 490.32800293 235.97999573
-369.44000244 417.54299927 230.33299255
-454.11999512 593.03198242 241.60000610
-473.51300049 635.17602539 234.48599243
-438.95498657 564.15997314 233.01300049
-422.29098511 527.66802979 241.04400635
-407.54699707 501.69000244 252.62199402
-480.82101440 659.07800293 235.39500427
-422.32400513 542.73101807 208.56700134
-381.74398804 450.47299194 244.46099854
-346.98300171 388.51998901 202.67700195
-394.45800781 478.83999634 249.54100037
-473.60998535 645.40802002 253.16600037
-425.53399658 547.81896973 237.51300049
-407.20999146 510.62298584 231.48399353
-369.42001343 434.17401123 217.72399902
-440.02200317 583.42999268 226.19599915
-462.67401123 625.80401611 252.20500183
-355.51599121 409.01699829 217.21899414
-385.34298706 470.97100830 233.40100098
-484.61300659 677.82098389 243.02999878
-367.95098877 437.36401367 237.58500671
-424.36599731 560.98699951 217.74299622
-453.71099854 622.80102539 230.91400146
-448.18099976 610.57897949 250.81900024
-343.49301147 404.23400879 189.72099304
-354.12899780 425.58898926 205.44599915
-430.88198853 579.35101318 243.66799927
-368.91299438 454.67700195 221.21099854
-405.32598877 534.72399902 215.60699463
-439.38400269 603.47998047 230.02099609
-471.88400269 676.90197754 222.85699463
-389.02801514 500.12600708 239.80299377
-401.46398926 529.34197998 236.08299255
-351.23400879 427.32199097 225.23899841
-464.43301392 662.85498047 249.01699829
-368.29501343 465.48498535 242.35499573
-415.48098755 564.63702393 243.10400391
-432.04098511 597.86199951 251.18299866
-452.67001343 644.35601807 235.98199463
-333.83099365 403.55700684 208.30099487
-353.82501221 445.09899902 210.84199524
-391.58401489 516.36297607 251.23699951
-374.27301025 484.43600464 247.80499268
-403.94400024 549.78802490 233.40699768
-442.13800049 630.48297119 249.18899536
-386.17300415 517.61297607 230.21800232
-368.36999512 480.55099487 228.68400574
-324.47500610 399.43899536 185.53900146
-336.10598755 421.59899902 196.94200134
-351.35000610 454.14498901 231.46400452
-376.90100098 502.93200684 255.90899658
-414.23800659 581.59802246 255.26199341
-418.03601074 593.35797119 236.62600708
-428.92800903 619.55603027 237.46000671
-449.87799072 664.39501953 233.58999634
-332.49899292 421.79699707 219.15499878
-317.45901489 391.54299927 212.74400330
-456.83599854 681.56597900 242.41499329
-390.27099609 540.77099609 248.38600159
-388.19699097 541.38897705 223.86599731
-440.07199097 650.55499268 252.06700134
-336.29699707 441.63800049 223.42599487
-350.92700195 472.54199219 222.56100464
-395.53698730 561.07702637 248.15699768
-430.49700928 640.27502441 236.05900574
-354.40899658 479.68399048 245.07200623
-315.50299072 409.04199219 201.72599792
-333.18099976 446.05499268 202.26699829
-361.33700562 497.68099976 239.38200378
-399.78500366 578.49499512 239.06100464
-412.43399048 601.48199463 256.79901123
-375.59298706 528.60998535 254.97900391
-132.55299377 36.24499893 170.11300659
-419.78799438 623.70800781 254.80400085
-442.79901123 681.61199951 222.03799438
-385.46301270 560.58197021 229.78100586
-372.29400635 534.22998047 234.69999695
-409.42999268 612.28002930 237.78799438
-319.52200317 432.93399048 193.11900330
-361.94100952 517.09997559 245.32200623
-333.50900269 462.77200317 228.17700195
-431.77700806 666.13299561 242.33099365
-314.56399536 428.98599243 213.85699463
-387.88699341 577.72601318 256.73699951
-373.39599609 549.86602783 254.42999268
-395.00500488 597.03698730 245.13099670
-410.96099854 632.34002686 235.89199829
-326.77999878 464.79699707 209.16099548
-300.71499634 408.45999146 218.10499573
-336.16598511 481.11999512 235.92399597
-417.45999146 648.91699219 249.13499451
-317.92898560 448.80300903 219.74200439
-418.16598511 657.01898193 229.42300415
-400.04299927 617.34497070 255.47900391
-342.01998901 500.28601074 233.60000610
-356.48001099 526.86901855 262.06201172
-313.79098511 451.07000732 199.86599731
-375.09698486 573.86602783 240.78999329
-297.63800049 422.33300781 197.79200745
-327.64199829 484.37298584 217.95500183
-358.48001099 547.37500000 240.98399353
-419.04000854 678.07897949 224.46000671
-342.70999146 513.55700684 250.00399780
-367.41101074 568.55102539 259.38800049
-381.11199951 597.12500000 259.93600464
-294.92999268 427.35501099 221.30299377
-397.79501343 637.70697021 250.11999512
-389.66799927 623.37200928 236.66299438
-312.47698975 465.82000732 228.91900635
-411.35900879 669.70501709 244.08299255
-354.57199097 548.51300049 261.40701294
-396.81799316 645.83300781 230.79400635
-282.48901367 409.78201294 227.59899902
-325.51501465 496.38500977 244.60600281
-294.97698975 442.82101440 198.29499817
-307.00399780 469.11801147 209.21800232
-297.70498657 447.81201172 219.06599426
-341.82000732 535.84002686 250.89500427
-374.59399414 607.24798584 239.82000732
-379.60699463 620.29901123 255.64900208
-360.85000610 586.07897949 249.44099426
-325.48599243 515.94799805 236.72700500
-310.74398804 485.41198730 235.97900391
-393.78799438 659.88800049 245.28500366
-277.77301025 425.50000000 209.66900635
-347.81399536 566.05499268 250.64700317
-398.93701172 677.64202881 224.78900146
-276.73001099 429.57501221 230.42500305
-325.03900146 525.50799561 254.39900208
-289.00698853 461.73901367 204.53500366
-291.65600586 465.31600952 226.69700623
-374.40200806 636.14801025 234.22500610
-308.96301270 505.33898926 228.32200623
-332.72399902 547.69299316 264.56698608
-311.51199341 510.24200439 250.89100647
-358.88900757 608.55798340 252.26899719
-380.17498779 657.54302979 228.35600281
-392.45199585 679.96301270 244.35200500
-277.80801392 449.55499268 223.85299683
-262.92001343 419.33200073 240.81599426
-368.90399170 637.20800781 253.83500671
-345.43200684 588.00201416 262.33599854
-295.12298584 491.15600586 224.23300171
-296.27499390 496.61898804 244.34800720
-332.71499634 569.89697266 263.26599121
-354.86499023 623.57897949 239.57099915
-309.07501221 532.16601563 242.43499756
-375.20300293 669.19000244 244.24899292
-341.33200073 599.63098145 245.81900024
-262.95999146 441.13198853 239.60099792
-278.56600952 478.66101074 213.83399963
-282.24700928 481.76901245 236.65899658
-312.87701416 540.70300293 260.20498657
-361.73400879 652.62402344 234.67999268
-375.29901123 684.63299561 229.80400085
-292.95300293 516.71697998 236.56799316
-263.58200073 462.44699097 210.29299927
-265.20098877 464.07598877 230.69000244
-296.64700317 524.12097168 256.62298584
-314.87899780 560.11199951 265.77200317
-325.29800415 584.66497803 251.09500122
-340.02200317 613.26501465 260.83099365
-246.98300171 425.94100952 253.35200500
-348.06600952 635.48797607 254.18699646
-274.20199585 496.68600464 221.44799805
-335.17599487 620.14300537 241.19999695
-276.20901489 499.61999512 245.40299988
-358.40399170 672.87902832 231.24099731
-247.59199524 445.62899780 227.06799316
-324.57699585 600.21398926 263.85400391
-299.41598511 554.01800537 253.64900208
-340.52099609 643.00598145 234.66000366
-245.00300598 445.85900879 248.87199402
-261.76098633 483.56900024 233.94400024
-311.22698975 579.80999756 264.73699951
-277.31201172 518.65997314 255.35200500
-288.92401123 540.66601563 265.44500732
-354.07901001 682.60302734 248.21000671
-272.84298706 518.22601318 235.72300720
-251.49200439 477.86700439 217.21000671
-247.22099304 464.20700073 241.20300293
-324.94601440 627.07202148 257.23300171
-340.28399658 663.38299561 234.48800659
-296.34600830 566.29400635 270.35900879
-230.81799316 434.89898682 261.21701050
-310.64999390 602.45001221 248.86199951
-254.03900146 497.69601440 221.02900696
-276.31100464 537.94702148 249.72900391
-322.19198608 635.21502686 237.59500122
-255.86099243 500.96899414 244.66499329
-292.81799316 580.38702393 256.03601074
-301.50900269 596.95800781 268.62200928
-309.04098511 615.85900879 264.07699585
-336.15701294 674.32098389 251.77699280
-280.70498657 559.48602295 258.58099365
-242.89799500 485.00100708 241.60699463
-232.42100525 460.74600220 254.89399719
-254.22500610 516.69201660 227.84300232
-256.39401245 519.50500488 252.24699402
-269.22500610 542.41699219 269.94299316
-304.85900879 621.25500488 243.32499695
-320.96301270 655.68597412 237.28199768
-219.48100281 451.13400269 266.97601318
-290.53100586 600.71502686 251.11900330
-276.93798828 575.81097412 269.91900635
-255.62100220 538.11798096 244.69099426
-234.48399353 498.23599243 226.91999817
-227.48399353 480.60699463 254.50300598
-302.26599121 641.06298828 238.88800049
-235.99000549 504.40499878 246.25700378
-281.48098755 595.94500732 269.19500732
-315.48999023 669.53399658 251.39599609
-259.88101196 555.12402344 256.56799316
-289.01000977 615.69396973 265.24398804
-213.00900269 465.89999390 250.10600281
-244.65600586 532.39398193 262.25399780
-234.51199341 519.05102539 230.69200134
-283.49301147 619.27398682 245.15899658
-202.11799622 447.23699951 276.14199829
-267.82901001 588.89501953 255.59500122
-302.85501099 665.11602783 234.88200378
-210.76199341 472.55200195 269.10998535
-256.95498657 566.86700439 272.50100708
-244.42399597 550.96002197 269.85598755
-229.28999329 523.90997314 250.18299866
-217.16099548 498.01098633 255.28199768
-270.36499023 609.44097900 258.00000000
-238.54699707 549.46099854 249.85099792
-281.12298584 638.84698486 240.40800476
-304.60000610 684.18798828 260.07998657
-255.14900208 586.88098145 273.25601196
-214.94700623 516.07800293 234.51800537
-194.76100159 466.87799072 279.95700073
-186.47000122 453.04598999 264.44900513
-240.60099792 567.86602783 258.94299316
-283.13699341 659.17498779 239.41200256
-293.92001343 681.79901123 241.63200378
-224.90199280 538.43298340 263.84298706
-200.57099915 489.50500488 266.14700317
-201.75900269 499.71099854 241.02999878
-263.08898926 625.11999512 243.39700317
-251.47099304 600.38897705 253.46400452
-211.03199768 517.14202881 255.56100464
-216.80000305 541.63500977 244.51100159
-224.86099243 556.47900391 272.94100952
-253.62699890 616.77801514 266.80999756
-175.78199768 455.51901245 281.38101196
-183.08500671 476.05801392 265.45001221
-236.49299622 587.45300293 256.66500854
-277.70300293 672.33099365 255.20599365
-264.93899536 650.72698975 239.21400452
-239.71299744 599.99700928 272.16198730
-193.46800232 507.88400269 259.70098877
-200.00999451 527.65399170 241.19799805
-205.19299316 534.88598633 263.55700684
-243.05000305 618.28399658 247.79699707
-221.52999878 574.67700195 265.00500488
-173.80599976 476.26199341 283.67599487
-249.07200623 639.66302490 246.05900574
-179.05999756 494.51400757 254.71299744
-205.25700378 554.00897217 255.35499573
-259.80398560 668.87402344 246.51199341
-228.62399292 605.89099121 254.40600586
-203.71899414 551.55401611 275.31500244
-160.41900635 466.35000610 269.49398804
-173.24499512 494.98599243 275.32901001
-220.57899475 592.22900391 274.88101196
-262.17999268 679.53802490 265.63198853
-185.88000488 527.46398926 261.43798828
-232.29100037 621.60797119 266.96099854
-175.77799988 514.88598633 273.69400024
-201.79699707 570.84600830 267.26998901
-171.76899719 515.10900879 250.88600159
-208.09399414 588.22601318 257.91299438
-227.87899780 631.56097412 244.83500671
-241.16900635 658.84399414 244.86000061
-258.77499390 693.64697266 251.35899353
-185.12600708 545.62902832 252.69500732
-244.73899841 669.54199219 262.37899780
-184.53500366 544.70898438 274.05999756
-154.15499878 480.58898926 283.15100098
-213.01899719 609.71801758 267.44500732
-158.28999329 502.34298706 262.96398926
-141.16900635 466.59600830 276.89700317
-210.05900574 617.46600342 249.18499756
-225.31599426 649.99499512 254.13900757
-200.40800476 595.60797119 275.07901001
-187.63699341 568.14398193 281.43200684
-215.64900208 632.30297852 263.64700317
-167.44799805 532.75598145 267.67800903
-152.35899353 500.85198975 283.24398804
-140.25000000 485.45098877 268.74499512
-226.60899353 662.41101074 270.36898804
-187.58099365 584.76300049 263.72198486
-175.77000427 560.33801270 264.82699585
-195.18099976 604.25500488 255.03799438
-228.45399475 673.75897217 249.27400208
-153.54100037 521.57501221 257.57501221
-206.90499878 639.91497803 246.75900269
-152.05799866 522.14202881 278.47799683
-199.55499268 622.78399658 274.98400879
-162.13900757 550.53698730 276.34298706
-138.45300293 505.69299316 268.62100220
-209.26400757 651.33898926 268.51000977
-222.37100220 681.96801758 273.48098755
-179.76300049 593.03302002 280.59201050
-167.44400024 570.23498535 281.45901489
-183.88400269 610.07702637 270.82299805
-188.79899597 623.67199707 253.97799683
-128.40199280 494.98800659 282.20001221
-165.83399963 579.60498047 263.81500244
-119.48500061 487.91699219 265.66598511
-142.63699341 538.11798096 264.78298950
-206.17599487 670.63598633 257.45199585
-169.47300720 598.81799316 259.36099243
-191.01699829 640.76098633 271.44500732
-132.17700195 518.41998291 283.28698730
-205.05200195 672.41302490 277.47500610
-142.35099792 545.90997314 283.35699463
-150.80000305 566.19500732 269.63500977
-186.14599609 643.21002197 250.04899597
-156.33599854 587.42700195 280.04998779
-174.86599731 628.65301514 271.89999390
-165.74299622 608.27001953 279.47900391
-115.51399994 508.38198853 273.23300171
-167.46299744 619.76202393 253.62800598
-187.42399597 660.34698486 275.95401001
-124.70400238 536.82202148 287.22399902
-137.81399536 565.76702881 285.01599121
-147.80299377 594.15399170 261.87799072
-189.24400330 681.35900879 260.81298828
-127.08300018 553.19396973 272.03900146
-178.99699402 663.54101563 257.92700195
-105.27999878 508.66101074 290.79501343
-170.65400696 648.53802490 275.20001221
-131.96600342 573.07397461 266.32699585
-163.78999329 641.48999023 254.28900146
-184.61000061 680.45001221 280.34399414
-153.99299622 623.11700439 272.38400269
-145.90100098 604.71697998 280.34500122
-95.48600006 505.44198608 269.46200562
-106.81800079 526.93701172 278.73599243
-133.75399780 586.73999023 280.98699951
-143.90899658 614.05798340 257.25900269
-118.15200043 556.41998291 290.15499878
-168.40199280 667.83300781 281.32901001
-105.93299866 540.03002930 293.93899536
-159.22000122 659.93402100 260.82901001
-151.79400635 642.16601563 278.19400024
-127.44100189 594.90100098 263.68600464
-144.26800537 634.11499023 255.50500488
-113.39700317 567.91900635 272.73800659
-167.32200623 683.15399170 267.98599243
-92.60700226 524.27697754 292.98300171
-135.44599915 621.80297852 281.56100464
-80.76699829 511.94198608 282.20800781
-125.06600189 604.73699951 284.35299683
-113.50700378 582.84997559 286.26199341
-94.86199951 547.22198486 277.98699951
-149.37100220 661.54699707 283.35299683
-124.22899628 615.51599121 260.75100708
-97.36399841 558.33697510 294.70498657
-140.26300049 654.49401855 266.47900391
-153.94500732 680.69396973 287.08200073
-105.67400360 588.39398193 268.23098755
-78.74199677 533.07098389 281.24600220
-131.54600525 642.01000977 283.08599854
-124.50800323 635.69598389 259.98300171
-91.26100159 566.84301758 274.47799683
-144.25900269 677.53497314 269.54901123
-116.37400055 625.72497559 276.71301270
-80.36199951 547.17102051 296.60198975
-64.05000305 518.56500244 273.08801270
-104.59200287 600.97998047 286.64898682
-94.13700104 579.46398926 290.58499146
-103.00599670 609.73498535 262.17599487
-129.58099365 661.12597656 289.12701416
-120.25299835 652.68499756 270.40100098
-133.56700134 680.44799805 292.90100098
-85.03800201 586.29199219 270.09100342
-78.52999878 567.32897949 296.38699341
-59.25699997 534.63800049 286.63598633
-69.72100067 557.61102295 279.90200806
-102.97699738 630.11199951 260.94198608
-123.36399841 672.43499756 272.77200317
-98.58100128 620.22399902 284.28900146
-106.90599823 642.56298828 282.03298950
-84.00199890 597.20397949 287.54400635
-61.25899887 551.44000244 301.37899780
-83.17900085 606.69500732 267.00601196
-109.58799744 661.51098633 289.77999878
-62.79800034 576.14202881 275.98999023
-68.94499969 585.07501221 293.58801270
-113.71199799 680.09600830 295.99099731
-42.50099945 534.23999023 297.61401367
-50.12900162 554.68701172 283.33300781
